# .PCD v0.7 - Point Cloud Data file format
VERSION 0.7
FIELDS x y z
SIZE 4 4 4
TYPE F F F
COUNT 1 1 1
WIDTH 1639
HEIGHT 1
VIEWPOINT 0 0 0 1 0 0 0
POINTS 1639
DATA ascii
-3.3900001 0.81 2.3599999
-3.3900001 0.81 2.46
-3.3900001 0.81 2.5599999
-3.3900001 0.81 2.6600001
-3.3900001 0.81 2.76
-3.3900001 0.81 2.8599999
-3.3900001 0.81 2.96
-3.3900001 0.81 3.0599999
-3.3900001 0.81 3.1600001
-3.3900001 0.81 3.26
-3.3900001 0.81 3.3599999
-3.3900001 0.91000003 -0.94
-3.3900001 0.91000003 -0.83999997
-3.3900001 0.91000003 -0.74000001
-3.3900001 0.91000003 -0.63999999
-3.3900001 0.91000003 -0.54000002
-3.3900001 0.91000003 -0.44
-3.3900001 0.91000003 -0.34
-3.3900001 0.91000003 -0.23999999
-3.3900001 0.91000003 -0.14
-3.3900001 0.91000003 -0.039999999
-3.3900001 0.91000003 0.059999999
-3.3900001 0.91000003 0.16
-3.3900001 0.91000003 0.25999999
-3.3900001 0.91000003 0.36000001
-3.3900001 0.91000003 0.46000001
-3.3900001 0.91000003 0.56
-3.3900001 0.91000003 0.66000003
-3.3900001 0.91000003 0.75999999
-3.3900001 0.91000003 0.86000001
-3.3900001 0.91000003 0.95999998
-3.3900001 0.91000003 1.0599999
-3.3900001 0.91000003 1.16
-3.3900001 0.91000003 1.26
-3.3900001 0.91000003 1.36
-3.3900001 0.91000003 1.46
-3.3900001 0.91000003 1.5599999
-3.3900001 0.91000003 1.66
-3.3900001 0.91000003 1.76
-3.3900001 0.91000003 1.86
-3.3900001 0.91000003 1.96
-3.3900001 0.91000003 2.0599999
-3.3900001 0.91000003 2.1600001
-3.3900001 0.91000003 2.26
-3.3900001 0.91000003 2.3599999
-3.3900001 0.91000003 2.46
-3.3900001 0.91000003 2.5599999
-3.3900001 0.91000003 2.6600001
-3.3900001 0.91000003 2.76
-3.3900001 0.91000003 2.8599999
-3.3900001 0.91000003 2.96
-3.3900001 0.91000003 3.0599999
-3.3900001 0.91000003 3.1600001
-3.3900001 0.91000003 3.26
-3.3900001 0.91000003 3.3599999
-3.3900001 0.91000003 3.46
-3.3900001 0.91000003 3.5599999
-3.3900001 0.91000003 3.6600001
-3.3900001 0.91000003 3.76
-3.3900001 0.91000003 3.8599999
-3.3900001 0.91000003 3.96
-3.3900001 0.91000003 4.0599999
-3.3900001 0.91000003 4.1599998
-3.3900001 0.91000003 4.2600002
-3.3900001 0.91000003 4.3600001
-3.3900001 0.91000003 4.46
-3.3900001 0.91000003 4.5599999
-3.3900001 0.91000003 4.6599998
-3.3900001 0.91000003 4.7600002
-3.3900001 0.91000003 4.8600001
-3.3900001 0.91000003 4.96
-3.3900001 0.91000003 5.0599999
-3.3900001 0.91000003 5.1599998
-3.3900001 0.91000003 5.2600002
-3.3900001 0.91000003 5.3600001
-3.3900001 0.91000003 5.46
-3.3900001 0.91000003 5.5599999
-3.3900001 0.91000003 5.6599998
-3.3900001 0.91000003 5.7600002
-3.3900001 0.91000003 5.8600001
-3.3900001 0.91000003 5.96
-3.3900001 0.91000003 6.0599999
-3.3900001 0.91000003 6.1599998
-3.3900001 0.91000003 6.2600002
-3.3900001 0.91000003 6.3600001
-3.3900001 0.91000003 6.46
-3.3900001 0.91000003 6.5599999
-3.3900001 0.91000003 6.6599998
-3.3900001 0.91000003 6.7600002
-3.3900001 1.01 -0.94
-3.3900001 1.01 -0.83999997
-3.3900001 1.01 -0.74000001
-3.3900001 1.01 -0.63999999
-3.3900001 1.01 -0.54000002
-3.3900001 1.01 -0.44
-3.3900001 1.01 -0.34
-3.3900001 1.01 -0.23999999
-3.3900001 1.01 -0.14
-3.3900001 1.01 -0.039999999
-3.3900001 1.01 0.059999999
-3.3900001 1.01 0.16
-3.3900001 1.01 0.25999999
-3.3900001 1.01 0.36000001
-3.3900001 1.01 0.46000001
-3.3900001 1.01 0.56
-3.3900001 1.01 0.66000003
-3.3900001 1.01 0.75999999
-3.3900001 1.01 0.86000001
-3.3900001 1.01 0.95999998
-3.3900001 1.01 1.0599999
-3.3900001 1.01 1.16
-3.3900001 1.01 1.26
-3.3900001 1.01 1.36
-3.3900001 1.01 1.46
-3.3900001 1.01 1.5599999
-3.3900001 1.01 1.66
-3.3900001 1.01 1.76
-3.3900001 1.01 1.86
-3.3900001 1.01 1.96
-3.3900001 1.01 2.0599999
-3.3900001 1.01 2.1600001
-3.3900001 1.01 2.26
-3.3900001 1.01 2.3599999
-3.3900001 1.01 2.46
-3.3900001 1.01 2.5599999
-3.3900001 1.01 2.6600001
-3.3900001 1.01 2.76
-3.3900001 1.01 2.8599999
-3.3900001 1.01 2.96
-3.3900001 1.01 3.0599999
-3.3900001 1.01 3.1600001
-3.3900001 1.01 3.26
-3.3900001 1.01 3.3599999
-3.3900001 1.01 3.46
-3.3900001 1.01 3.5599999
-3.3900001 1.01 3.6600001
-3.3900001 1.01 3.76
-3.3900001 1.01 3.8599999
-3.3900001 1.01 3.96
-3.3900001 1.01 4.0599999
-3.3900001 1.01 4.1599998
-3.3900001 1.01 4.2600002
-3.3900001 1.01 4.3600001
-3.3900001 1.01 4.46
-3.3900001 1.01 4.5599999
-3.3900001 1.01 4.6599998
-3.3900001 1.01 4.7600002
-3.29 0.50999999 -0.94
-3.29 0.50999999 -0.83999997
-3.29 0.50999999 -0.74000001
-3.29 0.50999999 -0.63999999
-3.29 0.50999999 -0.54000002
-3.29 0.50999999 -0.44
-3.29 0.50999999 -0.34
-3.29 0.50999999 -0.23999999
-3.29 0.50999999 -0.14
-3.29 0.50999999 -0.039999999
-3.29 0.50999999 0.059999999
-3.29 0.50999999 0.16
-3.29 0.50999999 0.25999999
-3.29 0.50999999 0.36000001
-3.29 0.50999999 0.46000001
-3.29 0.50999999 0.56
-3.29 0.50999999 0.66000003
-3.29 0.50999999 0.75999999
-3.29 0.50999999 0.86000001
-3.29 0.50999999 0.95999998
-3.29 0.50999999 1.0599999
-3.29 0.50999999 1.16
-3.29 0.50999999 1.26
-3.29 0.50999999 1.36
-3.29 0.50999999 1.46
-3.29 0.50999999 1.5599999
-3.29 0.50999999 1.66
-3.29 0.50999999 1.76
-3.29 0.50999999 1.86
-3.29 0.50999999 1.96
-3.29 0.50999999 2.0599999
-3.29 0.50999999 2.1600001
-3.29 0.50999999 2.26
-3.29 0.50999999 2.3599999
-3.29 0.50999999 2.46
-3.29 0.50999999 2.5599999
-3.29 0.50999999 2.6600001
-3.29 0.50999999 2.76
-3.29 0.50999999 2.8599999
-3.29 0.50999999 2.96
-3.29 0.50999999 3.0599999
-3.29 0.50999999 3.1600001
-3.29 0.50999999 3.26
-3.29 0.50999999 3.3599999
-3.29 0.50999999 3.46
-3.29 0.50999999 3.5599999
-3.29 0.50999999 3.6600001
-3.29 0.50999999 3.76
-3.29 0.50999999 3.8599999
-3.29 0.50999999 3.96
-3.29 0.50999999 4.0599999
-3.29 0.50999999 4.1599998
-3.29 0.50999999 4.2600002
-3.29 0.50999999 4.3600001
-3.29 0.50999999 4.46
-3.29 0.50999999 4.5599999
-3.29 0.50999999 4.6599998
-3.29 0.50999999 4.7600002
-3.29 0.50999999 4.8600001
-3.29 0.50999999 4.96
-3.29 0.50999999 5.0599999
-3.29 0.50999999 5.1599998
-3.29 0.50999999 5.2600002
-3.29 0.50999999 5.3600001
-3.29 0.50999999 5.46
-3.29 0.50999999 5.5599999
-3.29 0.50999999 5.6599998
-3.29 0.50999999 5.7600002
-3.29 0.50999999 5.8600001
-3.29 0.50999999 5.96
-3.29 0.50999999 6.0599999
-3.29 0.50999999 6.1599998
-3.29 0.50999999 6.2600002
-3.29 0.50999999 6.3600001
-3.29 0.61000001 -0.94
-3.29 0.61000001 -0.83999997
-3.29 0.61000001 -0.74000001
-3.29 0.61000001 -0.63999999
-3.29 0.61000001 -0.54000002
-3.29 0.61000001 -0.44
-3.29 0.61000001 -0.34
-3.29 0.61000001 -0.23999999
-3.29 0.61000001 -0.14
-3.29 0.61000001 -0.039999999
-3.29 0.61000001 0.059999999
-3.29 0.61000001 0.16
-3.29 0.61000001 0.25999999
-3.29 0.61000001 0.36000001
-3.29 0.61000001 0.46000001
-3.29 0.61000001 0.56
-3.29 0.61000001 0.66000003
-3.29 0.61000001 0.75999999
-3.29 0.61000001 0.86000001
-3.29 0.61000001 0.95999998
-3.29 0.61000001 1.0599999
-3.29 0.61000001 1.16
-3.29 0.61000001 1.26
-3.29 0.61000001 1.36
-3.29 0.61000001 1.46
-3.29 0.61000001 1.5599999
-3.29 0.61000001 1.66
-3.29 0.61000001 1.76
-3.29 0.61000001 1.86
-3.29 0.61000001 1.96
-3.29 0.61000001 2.0599999
-3.29 0.61000001 2.1600001
-3.29 0.61000001 2.26
-3.29 0.61000001 2.3599999
-3.29 0.61000001 2.46
-3.29 0.61000001 2.5599999
-3.29 0.61000001 2.6600001
-3.29 0.61000001 2.76
-3.29 0.61000001 2.8599999
-3.29 0.61000001 2.96
-3.29 0.61000001 3.0599999
-3.29 0.61000001 3.1600001
-3.29 0.61000001 3.26
-3.29 0.61000001 3.3599999
-3.29 0.61000001 3.46
-3.29 0.61000001 3.5599999
-3.29 0.61000001 3.6600001
-3.29 0.61000001 3.76
-3.29 0.61000001 3.8599999
-3.29 0.61000001 3.96
-3.29 0.61000001 4.0599999
-3.29 0.61000001 4.1599998
-3.29 0.61000001 4.2600002
-3.29 0.61000001 4.3600001
-3.29 0.61000001 4.46
-3.29 0.61000001 4.5599999
-3.29 0.61000001 4.6599998
-3.29 0.61000001 4.7600002
-3.29 0.61000001 4.8600001
-3.29 0.61000001 4.96
-3.29 0.61000001 5.0599999
-3.29 0.61000001 5.1599998
-3.29 0.61000001 5.2600002
-3.29 0.61000001 5.3600001
-3.29 0.61000001 5.46
-3.29 0.70999998 -0.94
-3.29 0.70999998 -0.83999997
-3.29 0.70999998 -0.74000001
-3.29 0.70999998 -0.63999999
-3.29 0.70999998 -0.54000002
-3.29 0.70999998 -0.44
-3.29 0.70999998 -0.34
-3.29 0.70999998 -0.23999999
-3.29 0.70999998 -0.14
-3.29 0.70999998 -0.039999999
-3.29 0.70999998 0.059999999
-3.29 0.70999998 0.16
-3.29 0.70999998 0.25999999
-3.29 0.70999998 0.36000001
-3.29 0.70999998 0.46000001
-3.29 0.70999998 0.56
-3.29 0.70999998 0.66000003
-3.29 0.70999998 0.75999999
-3.29 0.70999998 0.86000001
-3.29 0.70999998 0.95999998
-3.29 0.70999998 1.0599999
-3.29 0.70999998 1.16
-3.29 0.70999998 1.26
-3.29 0.70999998 1.36
-3.29 0.70999998 1.46
-3.29 0.70999998 1.5599999
-3.29 0.70999998 1.66
-3.29 0.70999998 1.76
-3.29 0.70999998 1.86
-3.29 0.70999998 1.96
-3.29 0.70999998 2.0599999
-3.29 0.70999998 2.1600001
-3.29 0.70999998 2.26
-3.29 0.70999998 2.3599999
-3.29 0.70999998 2.46
-3.29 0.70999998 2.5599999
-3.29 0.70999998 2.6600001
-3.29 0.70999998 2.76
-3.29 0.70999998 2.8599999
-3.29 0.70999998 2.96
-3.29 0.70999998 3.0599999
-3.29 0.70999998 3.1600001
-3.29 0.70999998 3.26
-3.29 0.70999998 3.3599999
-3.29 0.70999998 3.46
-3.29 0.70999998 3.5599999
-3.29 0.70999998 3.6600001
-3.29 0.70999998 3.76
-3.29 0.70999998 3.8599999
-3.29 0.70999998 3.96
-3.29 0.70999998 4.0599999
-3.29 0.70999998 4.1599998
-3.29 0.70999998 4.2600002
-3.29 0.70999998 4.3600001
-3.29 0.70999998 4.46
-3.29 0.70999998 4.5599999
-3.29 0.70999998 4.6599998
-3.29 0.70999998 4.7600002
-3.29 0.70999998 4.8600001
-3.29 0.70999998 4.96
-3.29 0.70999998 5.0599999
-3.29 0.81 -0.94
-3.29 0.81 -0.83999997
-3.29 0.81 -0.74000001
-3.29 0.81 -0.63999999
-3.29 0.81 -0.54000002
-3.29 0.81 -0.44
-3.29 0.81 -0.34
-3.29 0.81 -0.23999999
-3.29 0.81 -0.14
-3.29 0.81 -0.039999999
-3.29 0.81 0.059999999
-3.29 0.81 0.16
-3.29 0.81 0.25999999
-3.29 0.81 0.36000001
-3.29 0.81 0.46000001
-3.29 0.81 0.56
-3.29 0.81 0.66000003
-3.29 0.81 0.75999999
-3.29 0.81 0.86000001
-3.29 0.81 0.95999998
-3.29 0.81 1.0599999
-3.29 0.81 1.16
-3.29 0.81 1.26
-3.29 0.81 1.36
-3.29 0.81 1.46
-3.29 0.81 1.5599999
-3.29 0.81 1.66
-3.29 0.81 1.76
-3.29 0.81 1.86
-3.29 0.81 1.96
-3.29 0.81 2.0599999
-3.29 0.81 2.1600001
-3.29 0.81 2.26
-3.29 0.81 2.3599999
-3.29 0.81 2.46
-3.29 0.81 2.5599999
-3.29 0.81 2.6600001
-3.29 0.81 2.76
-3.29 0.81 2.8599999
-3.29 0.81 2.96
-3.29 0.81 3.0599999
-3.29 0.81 3.1600001
-3.29 0.81 3.26
-3.29 0.81 3.3599999
-3.29 0.81 3.46
-3.29 0.81 3.5599999
-3.29 0.81 3.6600001
-3.29 0.91000003 -0.94
-3.29 0.91000003 -0.83999997
-3.29 0.91000003 -0.74000001
-3.29 0.91000003 -0.63999999
-3.29 0.91000003 -0.54000002
-3.29 0.91000003 -0.44
-3.29 0.91000003 -0.34
-3.29 0.91000003 -0.23999999
-3.29 0.91000003 -0.14
-3.29 0.91000003 -0.039999999
-3.29 0.91000003 0.059999999
-3.29 0.91000003 0.16
-3.29 0.91000003 0.25999999
-3.29 0.91000003 0.36000001
-3.29 0.91000003 0.46000001
-3.29 0.91000003 0.56
-3.29 0.91000003 0.66000003
-3.29 0.91000003 0.75999999
-3.29 0.91000003 0.86000001
-3.29 0.91000003 0.95999998
-3.29 0.91000003 1.0599999
-3.29 0.91000003 1.16
-3.29 0.91000003 1.26
-3.29 0.91000003 1.36
-3.29 0.91000003 1.46
-3.29 0.91000003 1.5599999
-3.29 0.91000003 1.66
-3.29 0.91000003 1.76
-3.29 0.91000003 1.86
-3.29 0.91000003 1.96
-3.29 0.91000003 2.0599999
-3.29 0.91000003 2.1600001
-3.29 0.91000003 2.26
-3.29 0.91000003 2.3599999
-3.29 0.91000003 2.46
-3.29 0.91000003 2.5599999
-3.29 0.91000003 2.6600001
-3.29 0.91000003 2.76
-3.29 0.91000003 2.8599999
-3.29 0.91000003 2.96
-3.29 0.91000003 3.0599999
-3.29 0.91000003 3.1600001
-3.29 0.91000003 3.26
-3.29 0.91000003 3.3599999
-3.29 0.91000003 3.46
-3.29 0.91000003 3.5599999
-3.29 0.91000003 3.6600001
-3.29 0.91000003 3.76
-3.29 0.91000003 3.8599999
-3.29 0.91000003 3.96
-3.29 0.91000003 4.0599999
-3.29 0.91000003 4.1599998
-3.29 0.91000003 4.2600002
-3.29 0.91000003 4.3600001
-3.29 0.91000003 4.46
-3.29 0.91000003 4.5599999
-3.29 0.91000003 4.6599998
-3.29 0.91000003 4.7600002
-3.29 0.91000003 4.8600001
-3.29 0.91000003 4.96
-3.29 0.91000003 5.0599999
-3.29 0.91000003 5.1599998
-3.29 0.91000003 5.2600002
-3.1900001 0.70999998 -0.94
-3.1900001 0.70999998 -0.83999997
-3.1900001 0.70999998 -0.74000001
-3.1900001 0.70999998 -0.63999999
-3.1900001 0.70999998 -0.54000002
-3.1900001 0.70999998 -0.44
-3.1900001 0.70999998 -0.34
-3.1900001 0.70999998 -0.23999999
-3.1900001 0.70999998 -0.14
-3.1900001 0.70999998 -0.039999999
-3.1900001 0.70999998 0.059999999
-3.1900001 0.70999998 0.16
-3.1900001 0.70999998 0.25999999
-3.1900001 0.70999998 0.36000001
-3.1900001 0.70999998 0.46000001
-3.1900001 0.70999998 0.56
-3.1900001 0.70999998 0.66000003
-3.1900001 0.70999998 0.75999999
-3.1900001 0.70999998 0.86000001
-3.1900001 0.70999998 0.95999998
-3.1900001 0.70999998 1.0599999
-3.1900001 0.70999998 1.16
-3.1900001 0.70999998 1.26
-3.1900001 0.70999998 1.36
-3.1900001 0.70999998 1.46
-3.1900001 0.70999998 1.5599999
-3.1900001 0.70999998 1.66
-3.1900001 0.70999998 1.76
-3.1900001 0.70999998 1.86
-3.1900001 0.70999998 1.96
-3.1900001 0.70999998 2.0599999
-3.1900001 0.70999998 2.1600001
-3.1900001 0.70999998 2.26
-3.1900001 0.70999998 2.3599999
-3.1900001 0.70999998 2.46
-3.1900001 0.70999998 2.5599999
-3.1900001 0.70999998 2.6600001
-3.1900001 0.70999998 2.76
-3.1900001 0.70999998 2.8599999
-3.1900001 0.70999998 2.96
-3.1900001 0.70999998 3.0599999
-3.1900001 0.70999998 3.1600001
-3.1900001 0.70999998 3.26
-3.1900001 0.70999998 3.3599999
-3.1900001 0.70999998 3.46
-3.1900001 0.70999998 3.5599999
-3.1900001 0.70999998 3.6600001
-3.1900001 0.70999998 3.76
-3.1900001 0.70999998 3.8599999
-3.1900001 0.70999998 3.96
-3.1900001 0.70999998 4.0599999
-3.1900001 0.70999998 4.1599998
-3.1900001 0.70999998 4.2600002
-3.1900001 0.70999998 4.3600001
-3.1900001 0.70999998 4.46
-3.1900001 0.70999998 4.5599999
-3.1900001 0.70999998 4.6599998
-3.1900001 0.70999998 4.7600002
-3.1900001 0.70999998 4.8600001
-3.1900001 0.70999998 4.96
-3.1900001 0.70999998 5.0599999
-3.1900001 0.70999998 5.1599998
-3.1900001 0.70999998 5.2600002
-3.1900001 0.70999998 5.3600001
-3.1900001 0.70999998 5.46
-3.1900001 0.70999998 5.5599999
-3.1900001 0.70999998 5.6599998
-3.1900001 0.81 -0.94
-3.1900001 0.81 -0.83999997
-3.1900001 0.81 -0.74000001
-3.1900001 0.81 -0.63999999
-3.1900001 0.81 -0.54000002
-3.1900001 0.81 -0.44
-3.1900001 0.81 -0.34
-3.1900001 0.81 -0.23999999
-3.1900001 0.81 -0.14
-3.1900001 0.81 -0.039999999
-3.1900001 0.81 0.059999999
-3.1900001 0.81 0.16
-3.1900001 0.81 0.25999999
-3.1900001 0.81 0.36000001
-3.1900001 0.81 0.46000001
-3.1900001 0.81 0.56
-3.1900001 0.81 0.66000003
-3.1900001 0.81 0.75999999
-3.1900001 0.81 0.86000001
-3.1900001 0.81 0.95999998
-3.1900001 0.81 1.0599999
-3.1900001 0.81 1.16
-3.1900001 0.81 1.26
-3.1900001 0.81 1.36
-3.1900001 0.81 1.46
-3.1900001 0.81 1.5599999
-3.1900001 0.81 1.66
-3.1900001 0.81 1.76
-3.1900001 0.81 1.86
-3.1900001 0.81 1.96
-3.1900001 0.81 2.0599999
-3.1900001 0.81 2.1600001
-3.1900001 0.81 2.26
-3.1900001 0.81 2.3599999
-3.1900001 0.81 2.46
-3.1900001 0.81 2.5599999
-3.1900001 0.81 2.6600001
-3.1900001 0.81 2.76
-3.1900001 0.81 2.8599999
-3.1900001 0.81 2.96
-3.1900001 0.81 3.0599999
-3.1900001 0.81 3.1600001
-3.1900001 0.81 3.26
-3.1900001 0.81 3.3599999
-3.1900001 0.81 3.46
-3.1900001 0.81 3.5599999
-3.1900001 0.81 3.6600001
-3.1900001 0.81 3.76
-3.1900001 0.81 3.8599999
-3.1900001 0.81 3.96
-3.1900001 0.81 4.0599999
-3.1900001 0.81 4.1599998
-3.1900001 0.81 4.2600002
-3.1900001 0.81 4.3600001
-3.1900001 0.81 4.46
-3.1900001 0.81 4.5599999
-3.1900001 0.81 4.6599998
-3.1900001 0.81 4.7600002
-3.1900001 0.81 4.8600001
-3.1900001 0.81 4.96
-3.1900001 0.81 5.0599999
-3.1900001 0.81 5.1599998
-3.1900001 0.81 5.2600002
-14.291397 5.4080839 7.0500002
-14.285222 5.4018874 7.2227058
-14.26671 5.3833141 7.3949804
-14.23591 5.3524098 7.5663924
-14.192898 5.3092523 7.7365136
-14.137781 5.2539492 7.9049191
-14.070697 5.1866384 8.071187
-13.991814 5.1074886 8.2349033
-13.901328 5.0166974 8.3956575
-13.799467 4.9144921 8.5530491
-13.686484 4.8011279 8.7066832
-13.562662 4.676888 8.8561764
-13.428311 4.5420833 9.0011549
-13.283766 4.3970504 9.1412573
-13.129389 4.2421517 9.2761316
-12.965566 4.0777745 9.4054432
-12.792705 3.9043303 9.5288658
-12.611238 3.7222517 9.6460934
-12.421621 3.5319943 9.7568321
-12.224327 3.3340335 9.8608055
-12.019848 3.128864 9.9577522
-11.808696 2.9169989 10.047432
-11.591398 2.6989675 10.12962
-11.368499 2.4753149 10.204109
-11.140553 2.2466002 10.270716
-10.908133 2.0133946 10.329272
-10.671818 1.7762816 10.379632
-10.432199 1.5358535 10.421669
-10.189876 1.2927114 10.455279
-9.9454517 1.0474628 10.480378
-9.6995401 0.80072099 10.496902
-9.4527559 0.55310249 10.504811
-9.2057133 0.30522633 10.504086
-8.9590321 0.057712007 10.494725
-8.7133284 -0.18882179 10.476756
-8.4692154 -0.43375888 10.450221
-8.2273045 -0.67648703 10.415188
-7.9881992 -0.91639954 10.371743
-7.7524977 -1.1528968 10.319996
-7.5207896 -1.3853875 10.260075
-7.293653 -1.6132909 10.192131
-7.0716567 -1.836037 10.116333
-6.8553548 -2.0530694 10.03287
-6.6452885 -2.2638452 9.9419527
-6.4419823 -2.4678378 9.8438072
-6.2459445 -2.6645374 9.738678
-6.0576658 -2.8534522 9.6268282
-5.8776155 -3.0341103 9.5085382
-5.7062449 -3.2060597 9.3841028
-5.5439816 -3.368871 9.2538338
-5.3912311 -3.5221372 9.1180553
-5.2483759 -3.6654749 8.977109
-5.1157722 -3.7985263 8.8313456
-4.9937525 -3.9209583 8.6811295
-4.8826203 -4.0324655 8.5268364
-4.7826548 -4.1327686 8.3688517
-4.6941051 -4.2216172 8.207571
-4.6171927 -4.2987895 8.0433969
-4.5521102 -4.3640919 7.87674
-4.4990196 -4.4173617 7.7080169
-4.4580541 -4.4584656 7.5376487
-4.4293156 -4.4873009 7.3660612
-4.4128766 -4.5037956 7.1936846
-4.4087777 -4.5079083 7.0209484
-4.4170289 -4.499629 6.8482847
-4.4376106 -4.4789782 6.6761255
-4.4704704 -4.4460073 6.5049005
-4.5155263 -4.4007993 6.3350382
-4.5726662 -4.3434663 6.1669626
-4.641747 -4.2741523 6.0010943
-4.7225957 -4.1930308 5.8378482
-4.8150105 -4.1003036 5.6776314
-4.9187608 -3.9962034 5.5208445
-5.0335865 -3.8809898 5.3678803
-5.1592011 -3.754951 5.21912
-5.2952905 -3.618402 5.0749364
-5.4415145 -3.4716842 4.935689
-5.5975075 -3.3151641 4.8017268
-5.7628803 -3.1492331 4.6733837
-5.9372187 -2.9743059 4.550981
-6.1200871 -2.7908199 4.4348245
-6.311029 -2.5992334 4.3252048
-6.5095668 -2.4000254 4.2223954
-6.7152038 -2.1936936 4.1266537
-6.9274268 -1.9807543 4.0382185
-7.1457047 -1.7617391 3.9573116
-7.3694921 -1.5371959 3.8841348
-7.5982299 -1.3076856 3.818871
-7.831346 -1.0737821 3.7616832
-8.0682583 -0.83606994 3.7127144
-8.3083744 -0.59514326 3.6720872
-8.5510941 -0.35160422 3.6399031
-8.7958097 -0.10606162 3.6162424
-9.0419111 0.14087084 3.6011643
-9.2887831 0.38857597 3.5947065
-9.5358076 0.63643461 3.596885
-9.7823668 0.88382727 3.6076946
-10.027846 1.1301357 3.6271083
-10.271631 1.3747439 3.6550772
-10.513113 1.6170409 3.6915319
-10.751687 1.8564209 3.7363808
-10.986758 2.0922856 3.7895122
-11.217738 2.3240454 3.8507929
-11.44405 2.551121 3.9200702
-11.665127 2.7729449 3.9971704
-11.880418 2.9889627 4.0819016
-12.089384 3.1986344 4.1740508
-12.291503 3.4014359 4.2733889
-12.48627 3.5968604 4.3796668
-12.673198 3.7844195 4.4926195
-12.851819 3.963644 4.6119637
-13.021688 4.1340866 4.7374024
-13.182379 4.2953205 4.8686209
-13.333491 4.4469433 5.0052919
-13.474648 4.5885758 5.1470737
-13.605494 4.7198644 5.293612
-13.725703 4.8404799 5.44454
-13.834976 4.9501219 5.5994806
-13.93304 5.0485158 5.7580471
-14.019647 5.1354156 5.9198427
-14.094583 5.2106047 6.0844631
-14.15766 5.2738948 6.2514973
-14.20872 5.3251271 6.420527
-14.247636 5.3641748 6.5911298
-14.27431 5.3909392 6.7628798
-14.288676 5.405354 6.9353471
6.7314796 6.631701 7.0500002
6.7298779 6.6231008 7.3196602
6.7250776 6.597321 7.5886459
6.7170901 6.5544271 7.8562856
6.7059355 6.4945254 8.1219101
6.6916413 6.4177656 8.3848553
6.6742439 6.3243403 8.6444635
6.6537871 6.2144823 8.9000874
6.630321 6.0884666 9.1510859
6.6039047 5.9466076 9.3968334
6.574604 5.7892609 9.6367149
6.5424929 5.6168189 9.8701315
6.5076509 5.4297132 10.096498
6.4701653 5.2284107 10.315251
6.4301295 5.0134153 10.525843
6.3876443 4.785264 10.727746
6.3428154 4.5445275 10.920457
6.2957549 4.2918067 11.103494
6.2465806 4.0277338 11.2764
6.195415 3.7529693 11.438741
6.1423864 3.468199 11.590113
6.0876269 3.1741352 11.730137
6.0312743 2.8715129 11.858462
5.9734683 2.5610886 11.97477
5.9143538 2.2436378 12.078768
5.8540792 1.9199543 12.170197
5.7927942 1.590847 12.248828
5.7306528 1.2571386 12.314465
5.6678095 0.91966307 12.366942
5.6044216 0.57926404 12.406131
5.5406485 0.23679228 12.431931
5.4766483 -0.10689621 12.444281
5.4125814 -0.4509424 12.443147
5.348608 -0.79448628 12.428533
5.2848883 -1.1366693 12.400476
5.2215815 -1.4766361 12.359045
5.1588449 -1.8135369 12.304344
5.0968366 -2.1465297 12.23651
5.0357108 -2.4747822 12.155712
4.9756207 -2.7974739 12.062154
4.9167166 -3.1137981 11.956067
4.8591447 -3.4229643 11.837717
4.80305 -3.7242 11.707401
4.7485723 -4.0167518 11.565444
4.695848 -4.2998886 11.4122
4.6450086 -4.5729032 11.248054
4.5961809 -4.8351126 11.073414
4.5494876 -5.0858612 10.888718
4.5050449 -5.324523 10.694427
4.4629645 -5.5505013 10.491026
4.4233508 -5.7632308 10.279025
4.3863034 -5.9621801 10.058953
4.3519144 -6.1468525 9.8313608
4.3202705 -6.3167853 9.5968161
4.29145 -6.4715543 9.3559055
4.2655253 -6.6107726 9.1092319
4.2425613 -6.7340927 8.8574114
4.2226152 -6.8412056 8.6010723
4.2057371 -6.9318438 8.3408575
4.1919689 -7.0057812 8.0774155
4.181345 -7.0628324 7.8114057
4.173892 -7.1028552 7.5434928
4.1696286 -7.1257496 7.2743464
4.1685658 -7.1314578 7.0046391
4.1707058 -7.1199665 6.7350454
4.176043 -7.0913033 6.466239
4.1845651 -7.0455408 6.1988912
4.1962495 -6.9827929 5.9336715
4.2110677 -6.9032164 5.6712413
4.2289829 -6.8070102 5.4122577
4.2499499 -6.6944151 5.1573677
4.2739162 -6.565712 4.907208
4.3008223 -6.4212232 4.6624041
4.3306007 -6.2613096 4.4235682
4.3631773 -6.0863709 4.1912971
4.3984699 -5.8968444 3.9661708
4.4363909 -5.6932034 3.7487528
4.4768457 -5.4759574 3.5395861
4.5197325 -5.2456493 3.3391938
4.5649447 -5.0028543 3.1480763
4.6123691 -4.7481799 2.9667118
4.6618872 -4.4822626 2.7955532
4.7133751 -4.2057667 2.6350288
4.7667041 -3.9193833 2.4855392
4.8217406 -3.6238284 2.3474586
4.8783479 -3.3198407 2.2211318
4.9363842 -3.0081801 2.1068747
4.9957037 -2.6896255 2.0049727
5.056159 -2.3649731 1.9156809
5.117599 -2.0350342 1.8392221
5.1798697 -1.7006336 1.7757875
5.242815 -1.3626074 1.7255356
5.3062787 -1.0218002 1.6885922
5.3701015 -0.67906386 1.6650496
5.434124 -0.33525509 1.6549665
5.4981866 0.0087667769 1.6583681
5.5621281 0.35214186 1.675246
5.6257896 0.69401187 1.7055581
5.6890116 1.0335224 1.7492284
5.7516365 1.3698248 1.8061479
5.8135071 1.7020783 1.8761743
5.8744693 2.0294528 1.9591326
5.9343705 2.3511298 2.0548153
5.9930615 2.6663053 2.1629837
6.0503945 2.9741917 2.2833667
6.1062269 3.2740192 2.415664
6.1604195 3.5650384 2.5595446
6.2128358 3.8465221 2.7146492
6.2633457 4.1177669 2.8805897
6.3118229 4.3780942 3.0569518
6.3581457 4.6268535 3.2432942
6.4021988 4.8634233 3.4391515
6.443872 5.0872126 3.6440339
6.4830608 5.2976613 3.8574295
6.5196671 5.4942441 4.078805
6.5536003 5.6764688 4.3076067
6.584775 5.8438807 4.5432634
6.6131134 5.9960608 4.7851853
6.6385446 6.1326294 5.0327682
6.661005 6.2532444 5.2853928
6.6804385 6.357605 5.5424285
6.6967964 6.4454498 5.8032317
6.7100382 6.5165596 6.0671515
6.7201304 6.5707564 6.333528
6.7270484 6.6079049 6.6016955
6.7307739 6.627912 6.8709831
-11.201814 2.0827074 7.0500002
-11.193251 2.0809169 7.1618118
-11.167583 2.0755498 7.2733445
-11.124875 2.0666196 7.3843188
-11.065233 2.0541487 7.4944572
-10.988808 2.038168 7.6034851
-10.895787 2.0187178 7.7111292
-10.786407 1.9958463 7.817121
-10.660938 1.9696109 7.9211955
-10.519695 1.9400773 8.0230923
-10.363032 1.9073191 8.1225567
-10.191339 1.8714182 8.2193413
-10.005046 1.8324645 8.3132019
-9.8046179 1.7905551 8.4039059
-9.5905561 1.7457951 8.4912252
-9.3633957 1.6982961 8.5749426
-9.1237049 1.6481769 8.6548491
-8.8720818 1.5955628 8.7307434
-8.6091557 1.5405853 8.8024368
-8.3355837 1.4833816 8.86975
-8.0520506 1.4240952 8.9325151
-7.759264 1.3628738 8.9905748
-7.4579558 1.2998705 9.0437841
-7.14888 1.235243 9.0920095
-6.832808 1.1691526 9.1351309
-6.51053 1.1017647 9.1730413
-6.1828523 1.0332476 9.2056446
-5.8505931 0.96377254 9.2328606
-5.5145831 0.8935132 9.2546196
-5.1756625 0.82264519 9.2708693
-4.8346782 0.75134569 9.2815676
-4.4924822 0.67979288 9.2866879
-4.1499305 0.60816562 9.2862177
-3.8078785 0.53664291 9.280158
-3.4671814 0.46540353 9.2685242
-3.1286912 0.39462554 9.2513456
-2.7932537 0.32448587 9.2286644
-2.4617071 0.2551598 9.2005377
-2.1348801 0.18682064 9.1670351
-1.8135899 0.11963917 9.1282425
-1.4986395 0.053783335 9.0842543
-1.1908159 -0.010582272 9.035182
-0.89088863 -0.073296763 8.9811478
-0.59960729 -0.13420339 8.922286
-0.31770006 -0.19314992 8.8587446
-0.045871437 -0.24998902 8.7906828
0.2151991 -0.3045786 8.7182703
0.46485901 -0.35678226 8.6416883
0.70248425 -0.40646946 8.5611267
0.927481 -0.45351604 8.4767895
1.1392868 -0.4978044 8.3888845
1.3373721 -0.53922385 8.2976341
1.521242 -0.57767087 8.2032652
1.6904368 -0.61304939 8.1060133
1.8445338 -0.64527088 8.0061216
1.9831476 -0.67425489 7.903841
2.1059318 -0.69992894 7.7994261
2.2125795 -0.72222888 7.6931376
2.3028243 -0.741099 7.5852418
2.3764405 -0.75649202 7.4760079
2.433244 -0.76836962 7.3657098
2.473093 -0.77670199 7.254622
2.4958878 -0.78146833 7.143023
2.5015714 -0.78265679 7.0311913
2.4901297 -0.78026432 6.9194069
2.4615912 -0.774297 6.8079491
2.4160273 -0.76476961 6.6970959
2.3535519 -0.75170606 6.5871248
2.2743211 -0.73513895 6.4783106
2.1785328 -0.71510977 6.3709254
2.0664268 -0.69166845 6.2652378
1.9382828 -0.66487372 6.1615114
1.7944216 -0.63479245 6.0600057
1.6352024 -0.60149986 5.9609747
1.4610233 -0.56507921 5.8646655
1.2723198 -0.52562147 5.7713194
1.0695633 -0.48322532 5.681169
0.85326082 -0.43799669 5.59444
0.62395281 -0.39004859 5.5113492
0.38221258 -0.33950096 5.4321041
0.12864424 -0.28648007 5.3569031
-0.13611837 -0.23111847 5.285934
-0.41141346 -0.17355454 5.2193737
-0.69655299 -0.11393215 5.1573892
-0.99082422 -0.052400324 5.1001353
-1.2934917 0.010887138 5.0477552
-1.6037987 0.075772047 5.0003796
-1.92097 0.14209223 4.958127
-2.2442124 0.20968191 4.921103
-2.5727184 0.27837217 4.8894
-2.9056666 0.34799129 4.8630977
-3.2422247 0.41836527 4.8422608
-3.5815518 0.48931825 4.8269429
-3.9227996 0.56067282 4.8171811
-4.2651153 0.63225067 4.8130002
-4.6076431 0.70387286 4.8144107
-4.9495268 0.77536047 4.8214087
-5.2899122 0.84653467 4.8339777
-5.6279478 0.91721767 4.8520851
-5.9627895 0.98723274 4.8756862
-6.2936006 1.0564049 4.9047217
-6.6195531 1.1245613 4.9391198
-6.9398332 1.1915315 4.9787936
-7.2536397 1.2571481 5.0236449
-7.5601888 1.3212473 5.0735602
-7.8587141 1.3836687 5.1284161
-8.1484699 1.4442562 5.1880751
-8.428731 1.5028585 5.2523875
-8.6987972 1.5593292 5.3211932
-8.9579945 1.6135269 5.39432
-9.2056732 1.6653165 5.4715853
-9.4412155 1.7145681 5.5527959
-9.6640329 1.7611589 5.6377482
-9.8735676 1.8049725 5.7262306
-10.069297 1.8458992 5.8180218
-10.25073 1.8838367 5.9128923
-10.417415 1.9186904 6.0106053
-10.568934 1.9503729 6.1109161
-10.704909 1.9788052 6.2135739
-10.825001 2.0039163 6.3183222
-10.928907 2.0256431 6.4248996
-11.016371 2.0439317 6.5330396
-11.087173 2.0587361 6.6424713
-11.141133 2.0700192 6.7529216
-11.178121 2.0777533 6.8641148
-11.198041 2.0819187 6.9757724
-4.0962272 14.836802 7.0500002
-4.0977941 14.828197 7.1237645
-4.1024909 14.802398 7.1973443
-4.1103058 14.759472 7.270556
-4.1212192 14.699525 7.3432159
-4.1352038 14.622709 7.4151435
-4.152225 14.529214 7.4861584
-4.1722403 14.419274 7.5560832
-4.195199 14.293165 7.6247425
-4.2210441 14.151201 7.6919661
-4.249711 13.993738 7.7575846
-4.2811279 13.821168 7.8214345
-4.3152165 13.633924 7.8833561
-4.351892 13.432472 7.9431949
-4.3910618 13.217318 8.0008011
-4.4326286 12.988997 8.0560312
-4.4764881 12.748082 8.1087465
-4.522531 12.495173 8.1588154
-4.5706425 12.230906 8.2061129
-4.6207018 11.955936 8.2505207
-4.6725836 11.670956 8.2919273
-4.7261591 11.376674 8.3302307
-4.7812934 11.073827 8.3653336
-4.8378496 10.763172 8.3971491
-4.8956857 10.445486 8.4255972
-4.9546576 10.121563 8.4506073
-5.0146174 9.7922115 8.4721165
-5.0754156 9.4582558 8.4900703
-5.1368999 9.1205301 8.504426
-5.1989169 8.7798786 8.5151453
-5.2613115 8.4371529 8.5222034
-5.3239279 8.0932102 8.5255814
-5.3866096 7.7489085 8.5252714
-5.4491997 7.4051099 8.5212736
-5.5115418 7.0626736 8.5135984
-5.5734801 6.7224545 8.502265
-5.6348596 6.385304 8.4873018
-5.6955276 6.0520644 8.4687462
-5.7553315 5.7235684 8.4466448
-5.8141227 5.4006376 8.421052
-5.8717537 5.0840788 8.3920326
-5.9280806 4.7746835 8.3596582
-5.9829621 4.4732242 8.3240108
-6.036262 4.1804557 8.2851791
-6.0878468 3.8971088 8.2432604
-6.1375871 3.6238921 8.1983585
-6.1853585 3.3614883 8.1505871
-6.2310424 3.1105535 8.1000643
-6.2745242 2.8717148 8.046916
-6.3156948 2.6455691 7.9912772
-6.3544521 2.4326818 7.9332852
-6.3906984 2.2335849 7.8730855
-6.4243436 2.0487761 7.8108287
-6.4553037 1.8787172 7.7466702
-6.483501 1.7238333 7.6807704
-6.5088649 1.5845118 7.6132936
-6.5313325 1.4611005 7.5444093
-6.5508475 1.3539081 7.4742889
-6.5673609 1.2632025 7.4031081
-6.5808315 1.1892104 7.3310447
-6.5912256 1.1321168 7.2582793
-6.5985174 1.0920644 7.1849928
-6.6026883 1.0691532 7.1113691
-6.6037283 1.0634406 7.0375919
-6.6016345 1.0749407 6.9638457
-6.5964127 1.1036248 6.8903146
-6.5880752 1.1494215 6.817183
-6.576643 1.212216 6.7446332
-6.5621452 1.2918514 6.6728468
-6.5446177 1.3881288 6.6020031
-6.5241036 1.5008074 6.532279
-6.5006557 1.6296057 6.4638486
-6.4743314 1.7742015 6.396884
-6.4451966 1.9342338 6.3315516
-6.4133248 2.1093023 6.2680144
-6.3787951 2.2989695 6.2064323
-6.3416939 2.5027614 6.1469588
-6.302114 2.7201684 6.0897422
-6.2601542 2.9506474 6.0349255
-6.2159195 3.1936221 5.9826465
-6.1695204 3.4484851 5.9330349
-6.1210732 3.7145998 5.8862152
-6.0706987 3.9913008 5.8423042
-6.0185227 4.2778964 5.8014121
-5.9646754 4.5736704 5.7636409
-5.9092922 4.8778834 5.7290845
-5.8525109 5.189775 5.6978302
-5.7944736 5.5085659 5.6699553
-5.7353253 5.8334589 5.6455297
-5.6752143 6.1636424 5.6246152
-5.6142902 6.498291 5.6072626
-5.5527053 6.8365679 5.5935168
-5.4906139 7.1776276 5.5834107
-5.4281707 7.520618 5.5769711
-5.3655324 7.8646817 5.5742126
-5.3028555 8.2089586 5.5751433
-5.2402964 8.5525885 5.5797601
-5.1780109 8.8947115 5.5880518
-5.1161561 9.2344742 5.5999975
-5.0548854 9.5710258 5.6155677
-4.9943519 9.9035254 5.6347232
-4.9347081 10.231143 5.6574159
-4.876102 10.553059 5.6835895
-4.8186803 10.868467 5.7131786
-4.7625866 11.176582 5.746109
-4.7079611 11.476632 5.7822981
-4.6549406 11.767867 5.8216562
-4.6036572 12.04956 5.8640842
-4.5542393 12.321005 5.9094763
-4.5068107 12.581525 5.9577193
-4.4614892 12.830469 6.0086927
-4.4183888 13.067214 6.0622687
-4.3776169 13.291169 6.1183133
-4.3392754 13.501774 6.1766868
-4.3034601 13.698503 6.2372427
-4.2702603 13.880862 6.2998304
-4.2397599 14.048398 6.3642936
-4.2120342 14.200691 6.43047
-4.1871529 14.337361 6.4981952
-4.1651783 14.458066 6.5672998
-4.1461649 14.562504 6.6376104
-4.1301603 14.650414 6.708952
-4.1172047 14.721576 6.781146
-4.1073308 14.775813 6.8540125
-4.1005626 14.812989 6.9273682
-4.0969176 14.833011 7.0010309
-11.958644 9.4872656 7.0500002
-11.953135 9.4804707 7.1802354
-11.936619 9.4601021 7.3101459
-11.90914 9.4262114 7.4394054
-11.870765 9.3788824 7.5676918
-11.82159 9.3182344 7.6946845
-11.761739 9.2444181 7.820066
-11.69136 9.1576185 7.943522
-11.61063 9.058053 8.0647449
-11.519751 8.9459705 8.1834316
-11.418949 8.8216496 8.2992859
-11.308477 8.6854019 8.4120169
-11.188611 8.537569 8.5213442
-11.05965 8.3785191 8.6269932
-10.921917 8.2086506 8.7287006
-10.775756 8.0283871 8.8262129
-10.621531 7.8381796 8.9192848
-10.459631 7.6385036 9.0076847
-10.290457 7.4298587 9.0911913
-10.114433 7.2127657 9.1695957
-9.9320002 6.9877672 9.2427025
-9.7436132 6.7554259 9.3103294
-9.5497437 6.5163226 9.3723059
-9.3508759 6.2710547 9.4284782
-9.1475067 6.0202355 9.4787054
-8.9401445 5.7644916 9.5228615
-8.7293072 5.5044622 9.5608377
-8.515523 5.2407975 9.5925369
-8.299325 4.9741564 9.6178827
-8.081254 4.7052054 9.6368093
-7.861855 4.434617 9.6492701
-7.6416769 4.1630669 9.6552343
-7.4212699 3.8912344 9.654686
-7.2011843 3.6197987 9.6476278
-6.9819703 3.3494382 9.634078
-6.7641764 3.0808289 9.614068
-6.548347 2.814642 9.5876493
-6.3350205 2.5515425 9.5548887
-6.1247315 2.2921886 9.5158663
-5.9180045 2.0372286 9.4706812
-5.7153568 1.7872992 9.419445
-5.5172944 1.5430253 9.3622866
-5.3243132 1.3050176 9.2993488
-5.1368947 1.073871 9.2307882
-4.9555082 0.8501631 9.1567774
-4.7806063 0.63445318 9.0775013
-4.6126261 0.42728031 8.9931564
-4.4519882 0.22916235 8.9039555
-4.2990937 0.040594507 8.8101206
-4.1543245 -0.13795191 8.7118855
-4.018043 -0.30603063 8.6094971
-3.8905895 -0.46322155 8.503211
-3.7722824 -0.60913175 8.3932924
-3.6634178 -0.74339658 8.2800159
-3.5642676 -0.8656804 8.1636658
-3.4750798 -0.97567755 8.0445309
-3.3960772 -1.0731131 7.9229112
-3.327457 -1.1577436 7.7991095
-3.2693911 -1.2293575 7.6734352
-3.2220244 -1.2877756 7.5462027
-3.1854753 -1.3328521 7.4177303
-3.1598356 -1.3644744 7.2883382
-3.1451688 -1.3825632 7.1583509
-3.1415117 -1.3870734 7.0280924
-3.1488736 -1.3779938 6.8978887
-3.1672361 -1.3553472 6.7680655
-3.1965532 -1.3191898 6.6389465
-3.2367516 -1.2696123 6.5108552
-3.2877309 -1.2067386 6.3841119
-3.3493636 -1.1307257 6.2590322
-3.4214957 -1.0417638 6.1359301
-3.503947 -0.94007504 6.0151124
-3.5965114 -0.82591373 5.8968816
-3.6989572 -0.69956511 5.7815328
-3.8110287 -0.56134516 5.6693544
-3.9324458 -0.41159919 5.560627
-4.0629048 -0.25070155 5.4556222
-4.2020798 -0.079054393 5.3546028
-4.3496227 0.10291325 5.2578206
-4.5051651 0.29474655 5.1655183
-4.6683178 0.49596602 5.0779262
-4.8386736 0.70606875 4.9952631
-5.0158057 0.92452949 4.9177356
-5.1992722 1.1508024 4.8455377
-5.3886147 1.3843217 4.7788501
-5.5833592 1.6245039 4.7178392
-5.7830191 1.8707484 4.6626573
-5.9870958 2.1224401 4.6134424
-6.1950788 2.3789496 4.5703177
-6.4064484 2.6396358 4.533391
-6.6206765 2.9038472 4.5027547
-6.8372269 3.1709235 4.4784846
-7.0555596 3.440197 4.4606428
-7.2751274 3.7109945 4.4492722
-7.4953828 3.9826396 4.4444027
-7.7157745 4.2544527 4.4460454
-7.9357519 4.5257554 4.4541969
-8.1547651 4.7958684 4.4688363
-8.3722668 5.0641174 4.4899278
-8.5877132 5.3298316 4.5174174
-8.8005657 5.5923467 4.5512376
-9.0102921 5.851007 4.5913033
-9.2163696 6.1051655 4.6375146
-9.4182816 6.354187 4.6897554
-9.6155233 6.5974498 4.7478962
-9.8076029 6.8343449 4.8117909
-9.9940395 7.0642805 4.8812795
-10.174367 7.2866821 4.9561892
-10.348135 7.5009937 5.0363321
-10.514909 7.7066798 5.1215086
-10.674273 7.9032259 5.2115049
-10.825828 8.0901413 5.3060966
-10.969193 8.2669573 5.4050469
-11.104014 8.4332342 5.5081091
-11.229952 8.5885553 5.615025
-11.346691 8.7325315 5.7255278
-11.45394 8.8648052 5.8393407
-11.551432 8.9850435 5.9561801
-11.638923 9.092947 6.0757532
-11.716192 9.1882448 6.1977615
-11.783049 9.2707005 6.3218999
-11.839325 9.3401079 6.4478583
-11.884881 9.3962917 6.5753212
-11.9196 9.4391127 6.7039714
-11.943399 9.4684639 6.8334861
-11.956217 9.484272 6.9635415
-5.800746 8.0069695 7.0500002
-5.7976828 7.9987745 7.1665268
-5.7885022 7.9742117 7.2827625
-5.7732267 7.9333415 7.398416
-5.751894 7.8762665 7.5131993
-5.7245579 7.8031287 7.6268244
-5.691287 7.7141118 7.7390079
-5.6521635 7.6094379 7.8494692
-5.6072865 7.4893684 7.957932
-5.556767 7.3542037 8.064126
-5.5007319 7.2042818 8.1677847
-5.439321 7.0399771 8.2686501
-5.3726878 6.8617001 8.3664684
-5.3009992 6.6698971 8.4609966
-5.2244339 6.4650469 8.5519991
-5.1431832 6.2476616 8.639246
-5.0574512 6.0182843 8.7225218
-4.9674511 5.7774892 8.8016167
-4.8734078 5.5258775 8.8763332
-4.7755575 5.2640781 8.9464846
-4.6741438 4.9927454 9.0118961
-4.5694203 4.7125583 9.0724049
-4.4616489 4.4242158 9.1278572
-4.351099 4.1284394 9.1781168
-4.2380466 3.8259687 9.2230568
-4.1227751 3.5175591 9.2625656
-4.0055718 3.2039816 9.2965441
-3.8867297 2.8860202 9.3249073
-3.7665462 2.5644693 9.3475838
-3.6453216 2.240133 9.3645182
-3.5233588 1.9138217 9.3756676
-3.4009628 1.586351 9.3810043
-3.2784393 1.2585397 9.3805141
-3.1560948 0.93120676 9.3741989
-3.034235 0.60517061 9.3620749
-2.9131641 0.2812461 9.3441715
-2.7931855 -0.03975714 9.3205338
-2.6745985 -0.35703677 9.2912207
-2.5576994 -0.66979975 9.2563066
-2.442781 -0.97726429 9.2158775
-2.3301299 -1.278662 9.1700344
-2.2200282 -1.5732394 9.1188927
-2.1127505 -1.8602604 9.0625801
-2.0085654 -2.1390073 9.001236
-1.9077333 -2.4087837 8.9350157
-1.8105061 -2.668915 8.8640842
-1.7171268 -2.9187512 8.7886181
-1.627829 -3.1576681 8.708806
-1.5428355 -3.3850679 8.6248484
-1.462359 -3.6003826 8.5369539
-1.3866006 -3.8030741 8.445343
-1.3157498 -3.9926355 8.3502445
-1.2499835 -4.1685929 8.2518959
-1.1894661 -4.3305073 8.1505432
-1.134349 -4.477973 8.0464401
-1.0847698 -4.6106224 7.9398456
-1.0408525 -4.7281227 7.8310275
-1.002707 -4.8301816 7.7202573
-0.97042841 -4.916543 7.6078119
-0.94409746 -4.9869909 7.4939718
-0.92378008 -5.0413504 7.3790226
-0.90952694 -5.0794845 7.2632504
-0.90137374 -5.1012983 7.1469455
-0.89934087 -5.1067376 7.0303984
-0.90343332 -5.095788 6.9139004
-0.91364092 -5.0684776 6.7977424
-0.92993814 -5.0248742 6.6822147
-0.95228428 -4.9650874 6.5676064
-0.98062342 -4.889266 6.4542036
-1.0148848 -4.7975998 6.3422904
-1.0549828 -4.6903176 6.2321458
-1.100817 -4.567688 6.1240458
-1.1522731 -4.4300175 6.01826
-1.2092223 -4.2776494 5.9150529
-1.2715224 -4.1109657 5.8146825
-1.3390176 -3.9303825 5.7174001
-1.4115392 -3.736351 5.6234484
-1.4889059 -3.5293562 5.533062
-1.5709245 -3.3099158 5.4464674
-1.6573898 -3.078578 5.3638811
-1.7480856 -2.835921 5.2855086
-1.8427855 -2.5825517 5.2115469
-1.9412526 -2.319103 5.14218
-2.0432408 -2.0462334 5.0775819
-2.1484954 -1.7646251 5.0179138
-2.256753 -1.4749819 4.963325
-2.367743 -1.1780279 4.9139514
-2.4811883 -0.87450504 4.8699174
-2.5968053 -0.56517214 4.8313317
-2.7143047 -0.25080243 4.7982922
-2.8333931 0.067818433 4.7708807
-2.9537728 0.38989404 4.7491655
-3.0751426 0.71461934 4.733201
-3.1971996 1.0411828 4.7230277
-3.3196385 1.3687679 4.7186708
-3.4421532 1.6965562 4.7201405
-3.5644379 2.0237281 4.7274342
-3.6861863 2.3494661 4.7405324
-3.8070943 2.6729558 4.7594037
-3.9268601 2.9933889 4.7839999
-4.0451841 3.3099642 4.81426
-4.1617703 3.6218905 4.8501086
-4.2763271 3.9283884 4.8914557
-4.3885694 4.2286916 4.9381976
-4.4982152 4.5220494 4.9902182
-4.6049914 4.8077288 5.0473871
-4.7086306 5.0850153 5.1095614
-4.8088741 5.3532166 5.1765862
-4.9054708 5.6116614 5.2482934
-4.9981799 5.859705 5.3245034
-5.0867696 6.0967259 5.4050269
-5.1710181 6.3221326 5.4896617
-5.2507148 6.5353618 5.5781965
-5.3256607 6.7358799 5.6704102
-5.395669 6.9231858 5.7660723
-5.4605637 7.0968122 5.864943
-5.5201831 7.2563243 5.9667764
-5.5743785 7.4013233 6.0713167
-5.623014 7.5314474 6.1783032
-5.6659679 7.6463709 6.2874689
-5.7031331 7.7458072 6.3985405
-5.734417 7.8295069 6.51124
-5.7597408 7.8972607 6.6252866
-5.7790418 7.9489002 6.7403946
-5.7922711 7.9842958 6.8562765
-5.7993965 8.0033588 6.9726424
-0.73623443 -3.6409135 7.0500002
-0.74387509 -3.645174 7.3824201
-0.76677781 -3.6579447 7.7140093
-0.80488545 -3.6791937 8.0439386
-0.85810274 -3.7088683 8.3713846
-0.92629659 -3.7468936 8.6955271
-1.0092967 -3.7931752 9.0155563
-1.1068954 -3.8475971 9.3306732
-1.2188491 -3.9100235 9.640089
-1.3448775 -3.980298 9.9430313
-1.484666 -4.0582452 10.238743
-1.6378649 -4.1436701 10.526484
-1.8040916 -4.2363596 10.805535
-1.9829303 -4.3360815 11.0752
-2.1739342 -4.4425869 11.334804
-2.3766258 -4.5556092 11.583697
-2.5904984 -4.6748667 11.821259
-2.8150177 -4.8000603 12.046897
-3.0496223 -4.9308777 12.260043
-3.293726 -5.0669918 12.460168
-3.5467184 -5.2080626 12.64677
-3.8079672 -5.3537374 12.819383
-4.0768199 -5.5036516 12.977575
-4.3526034 -5.6574311 13.120952
-4.6346297 -5.8146911 13.249154
-4.9221931 -5.975039 13.361861
-5.2145748 -6.1380734 13.458793
-5.5110445 -6.3033872 13.539705
-5.8108606 -6.4705672 13.604398
-6.1132741 -6.6391954 13.652706
-6.4175291 -6.8088508 13.684512
-6.7228651 -6.9791088 13.699736
-7.0285192 -7.1495438 13.698338
-7.3337264 -7.3197298 13.680323
-7.6377249 -7.4892421 13.645735
-7.9397545 -7.6576562 13.594662
-8.2390604 -7.8245516 13.527229
-8.534894 -7.989511 13.443608
-8.8265162 -8.1521225 13.344007
-9.1131992 -8.3119783 13.228672
-9.3942242 -8.4686804 13.097895
-9.66889 -8.6218367 12.952002
-9.936511 -8.7710638 12.791355
-10.196417 -8.9159899 12.616359
-10.447958 -9.0562515 12.42745
-10.690506 -9.1914978 12.2251
-10.923455 -9.321393 12.009815
-11.146223 -9.44561 11.782133
-11.358253 -9.563839 11.542623
-11.559013 -9.6757851 11.291883
-11.748004 -9.781168 11.030542
-11.924752 -9.8797245 10.759252
-12.088817 -9.9712076 10.478689
-12.239787 -10.05539 10.189557
-12.377285 -10.13206 9.8925781
-12.500968 -10.201027 9.5884933
-12.610526 -10.262117 9.2780647
-12.705687 -10.31518 8.9620667
-12.786211 -10.360081 8.6412888
-12.851897 -10.396708 8.316534
-12.902582 -10.42497 7.9886136
-12.938139 -10.444797 7.6583471
-12.958478 -10.456139 7.32656
-12.96355 -10.458966 6.994082
-12.953341 -10.453273 6.6617436
-12.927876 -10.439075 6.3303752
-12.887219 -10.416404 6.0008059
-12.831474 -10.38532 5.6738591
-12.760777 -10.345899 5.3503518
-12.675307 -10.29824 5.0310926
-12.575276 -10.242462 4.7168798
-12.460936 -10.178704 4.4084988
-12.332571 -10.107127 4.1067195
-12.190502 -10.027908 3.8122973
-12.035085 -9.941246 3.5259678
-11.866708 -9.8473577 3.2484465
-11.685791 -9.7464771 2.9804268
-11.492787 -9.6388569 2.7225792
-11.28818 -9.524766 2.4755478
-11.072479 -9.4044895 2.2399502
-10.846224 -9.2783279 2.0163751
-10.609981 -9.146596 1.8053815
-10.364339 -9.0096245 1.6074967
-10.109913 -8.8677549 1.4232155
-9.8473396 -8.7213411 1.2529981
-9.5772743 -8.5707512 1.0972704
-9.3003922 -8.4163589 0.9564212
-9.0173855 -8.2585516 0.83080286
-8.728961 -8.097724 0.72072929
-8.4358406 -7.934278 0.62647563
-8.1387558 -7.768621 0.54827738
-7.8384504 -7.6011682 0.48633009
-7.5356741 -7.4323378 0.44078854
-7.231184 -7.2625513 0.41176656
-6.9257412 -7.0922341 0.39933673
-6.6201091 -6.9218111 0.40353009
-6.3150516 -6.7517085 0.42433617
-6.0113311 -6.5823512 0.46170294
-5.7097073 -6.4141631 0.51553702
-5.410933 -6.2475643 0.58570385
-5.115756 -6.0829711 0.67202806
-4.8249135 -5.920795 0.7742939
-4.5391326 -5.7614412 0.89224571
-4.2591281 -5.6053081 1.0255888
-3.9855988 -5.452786 1.1739897
-3.7192295 -5.3042564 1.3370775
-3.4606853 -5.16009 1.5144447
-3.2106125 -5.0206475 1.7056478
-2.9696367 -4.8862772 1.9102092
-2.7383595 -4.7573152 2.1276174
-2.5173593 -4.6340833 2.3573287
-2.3071883 -4.5168905 2.5987694
-2.108372 -4.4060287 2.851336
-1.9214075 -4.3017759 3.1143968
-1.7467617 -4.204392 3.3872948
-1.5848715 -4.1141205 3.6693475
-1.4361413 -4.0311875 3.9598503
-1.3009429 -3.9557996 4.2580767
-1.1796143 -3.8881457 4.5632815
-1.0724587 -3.8283949 4.8747015
-0.97974396 -3.7766964 5.1915588
-0.90170181 -3.7331796 5.5130615
-0.83852732 -3.6979527 5.8384056
-0.79037833 -3.6711047 6.1667781
-0.75737524 -3.6527019 6.4973578
-0.7396006 -3.6427906 6.8293195
9.8653879 14.782851 7.0500002
9.8629942 14.774437 7.3195004
9.8558197 14.749215 7.5883269
9.8438807 14.707249 7.8558078
9.8272085 14.648643 8.1212749
9.8058434 14.573544 8.3840637
9.7798405 14.482139 8.6435194
9.7492638 14.374657 8.8989906
9.7141895 14.251367 9.1498413
9.6747055 14.112576 9.395443
9.6309118 13.958633 9.6351824
9.5829153 13.789921 9.8684607
9.530838 13.606862 10.094694
9.4748096 13.409914 10.313316
9.4149694 13.199569 10.523784
9.3514681 12.976353 10.725567
9.2844639 12.740823 10.918164
9.2141237 12.493568 11.101092
9.140624 12.235208 11.273895
9.0641489 11.966386 11.43614
8.984889 11.687775 11.587422
8.9030418 11.400072 11.727364
8.8188124 11.103995 11.855614
8.7324123 10.800285 11.971852
8.6440554 10.489701 12.075788
8.5539646 10.173018 12.167163
8.4623642 9.8510294 12.245748
8.369483 9.5245399 12.311345
8.2755527 9.1943636 12.363792
8.18081 8.8613272 12.402957
8.0854893 8.5262632 12.428743
7.98983 8.1900082 12.441085
7.8940716 7.853404 12.439952
7.7984529 7.5172906 12.425346
7.7032127 7.1825089 12.397305
7.6085896 6.849896 12.355899
7.5148196 6.5202823 12.30123
7.4221377 6.1944919 12.233437
7.3307748 5.8733392 12.152687
7.2409601 5.5576277 12.059184
7.1529174 5.2481451 11.953159
7.0668669 4.9456663 11.83488
6.9830236 4.6509461 11.704641
6.9015975 4.3647223 11.562768
6.8227921 4.0877094 11.409616
6.7468038 3.8206003 11.245565
6.6738229 3.5640626 11.07103
6.6040316 3.3187373 10.886442
6.5376048 3.0852377 10.692266
6.4747081 2.8641474 10.488987
6.4154987 2.6560192 10.277112
6.3601251 2.4613729 10.057171
6.3087254 2.2806954 9.8297129
6.2614279 2.1144381 9.5953074
6.2183509 1.9630166 9.3545399
6.1796021 1.8268094 9.1080122
6.1452785 1.706157 8.8563404
6.1154656 1.6013609 8.6001539
6.0902381 1.512683 8.3400927
6.0696592 1.4403449 8.076807
6.0537801 1.3845277 7.8109546
6.0426402 1.3453705 7.5432005
6.0362682 1.3229716 7.2742133
6.0346794 1.3173866 7.0046659
6.037878 1.3286296 6.7352319
6.0458555 1.3566726 6.4665847
6.0585928 1.4014455 6.1993957
6.0760574 1.4628363 5.9343328
6.098206 1.5406915 5.6720581
6.1249833 1.6348165 5.413228
6.156322 1.7449763 5.1584888
6.1921439 1.8708953 4.9084773
6.2323594 2.0122588 4.6638188
6.2768683 2.1687136 4.4251242
6.3255591 2.3398685 4.1929908
6.3783102 2.5252957 3.967998
6.4349899 2.7245319 3.7507088
6.4954557 2.937079 3.5416663
6.5595579 3.1624057 3.3413925
6.6271348 3.3999488 3.1503882
6.6980186 3.6491146 2.9691312
6.7720318 3.9092803 2.7980742
6.848989 4.1797957 2.6376448
6.9286981 4.4599848 2.4882438
7.0109601 4.7491469 2.350245
7.0955691 5.0465593 2.2239931
7.1823139 5.3514786 2.1098037
7.2709775 5.6631432 2.0079622
7.3613381 5.9807734 1.9187231
7.4531703 6.303576 1.8423096
7.5462441 6.630743 1.7789125
7.6403275 6.9614582 1.7286905
7.7351842 7.2948937 1.691769
7.8305783 7.6302166 1.6682403
7.926271 7.966589 1.6581632
8.0220222 8.3031693 1.6615628
8.1175947 8.6391172 1.6784307
8.2127476 8.9735928 1.7087247
8.3072433 9.3057604 1.7523693
8.4008465 9.6347885 1.809255
8.4933233 9.9598551 1.8792399
8.5844412 10.280149 1.962149
8.673974 10.594868 2.0577753
8.7616968 10.903226 2.1658792
8.8473911 11.204453 2.286191
8.9308424 11.497795 2.4184098
9.0118418 11.78252 2.5622053
9.090188 12.057916 2.7172179
9.1656837 12.323293 2.8830602
9.2381401 12.57799 3.0593176
9.3073778 12.821368 3.2455497
9.3732224 13.052821 3.4412909
9.4355097 13.27177 3.6460521
9.4940844 13.477667 3.8593214
9.5487995 13.669997 4.0805655
9.5995178 13.848281 4.3092318
9.6461134 14.012072 4.5447488
9.6884699 14.16096 4.7865272
9.7264814 14.294575 5.0339632
9.7600527 14.41258 5.2864385
9.7890987 14.514684 5.5433216
9.813549 14.600629 5.8039708
9.8333406 14.6702 6.0677342
9.8484259 14.723225 6.3339529
9.8587646 14.75957 6.6019611
9.8643341 14.779144 6.8710895
-4.5448208 9.3119001 7.0500002
-4.5369539 9.308073 7.3449078
-4.5133729 9.2966032 7.6390791
-4.4741368 9.2775183 7.9317775
-4.4193435 9.2508659 8.2222719
-4.3491302 9.216713 8.5098362
-4.2636719 9.1751442 8.7937517
-4.1631827 9.1262655 9.0733089
-4.047914 9.0701962 9.3478088
-3.9181533 9.0070791 9.6165657
-3.774225 8.9370699 9.8789072
-3.6164892 8.8603449 10.134178
-3.4453399 8.7770948 10.38174
-3.261205 8.6875286 10.620974
-3.0645447 8.5918703 10.851283
-2.8558505 8.4903584 11.07209
-2.635644 8.3832464 11.282845
-2.4044757 8.2708025 11.483019
-2.1629233 8.153307 11.672113
-1.9115908 8.0310555 11.849654
-1.6511062 7.9043517 12.015199
-1.3821206 7.7735128 12.168333
-1.1053064 7.6388659 12.308675
-0.82135528 7.5007477 12.435871
-0.53097713 7.3595033 12.549606
-0.23489779 7.2154856 12.649596
0.06614279 7.0690546 12.735589
0.37139213 6.9205766 12.807371
0.68008727 6.7704225 12.864762
0.99145663 6.6189675 12.90762
1.304722 6.4665904 12.935837
1.6191003 6.3136716 12.949343
1.9338057 6.160594 12.948102
2.2480519 6.0077395 12.93212
2.561053 5.8554912 12.901436
2.8720269 5.7042284 12.856126
3.1801965 5.5543299 12.796303
3.4847913 5.4061704 12.722118
3.7850499 5.2601199 12.633756
4.0802221 5.1165433 12.531437
4.3695698 4.9758 12.415417
4.65237 4.8382416 12.285987
4.9279156 4.7042117 12.143469
5.1955185 4.5740457 11.98822
